ply
format ascii 1.0
element vertex 1260
property float x
property float y
property float z
property uchar red
property uchar green
property uchar blue
end_header
58.9101 19.3808 -14.8852  255 255 255
59.1789 29.976 -35.4254  255 255 255
23.6364 54.1152 -76.8938  255 255 255
56.4181 31.848 -39.4328  255 255 255
13.8101 50.4126 -68.7507  255 255 255
61.535 15.1909 -8.88959  255 255 255
62.1547 16.0384 -10.8264  255 255 255
65.5433 13.0943 -5.73759  255 255 255
-18.4653 39.2175 -41.1117  255 255 255
62.5785 15.6044 -10.3794  255 255 255
60.5365 17.2807 -13.3552  255 255 255
16.1434 50.9636 -71.8964  255 255 255
35.8186 57.6197 -88.8224  255 255 255
59.2294 12.6602 -4.19533  255 255 255
56.3801 21.1972 -20.8572  255 255 255
61.7062 16.1209 -11.9347  255 255 255
57.9543 19.4376 -17.8316  255 255 255
-15.6522 39.4608 -43.5238  255 255 255
55.3255 31.5325 -41.8338  255 255 255
62.8222 14.9091 -10.8159  255 255 255
2.71752 44.8469 -59.3655  255 255 255
61.2249 16.1619 -13.1292  255 255 255
-0.690773 44.6024 -58.1889  255 255 255
-0.690775 44.6024 -58.1889  255 255 255
55.1203 21.3863 -22.428  255 255 255
59.3792 17.5322 -15.4546  255 255 255
62.9256 14.7132 -10.6665  255 255 255
68.5357 10.2879 -2.80647  255 255 255
-18.2443 38.0414 -41.7409  255 255 255
65.0887 12.7331 -7.77542  255 255 255
11.3436 47.6977 -68.7331  255 255 255
65.2784 12.6332 -8.12163  255 255 255
-20.4786 36.6396 -39.2497  255 255 255
12.4806 48.0998 -70.4626  255 255 255
24.6709 51.965 -80.8494  255 255 255
61.8499 14.9136 -12.4409  255 255 255
-18.1883 37.5727 -42.6557  255 255 255
62.1978 14.593 -12.3099  255 255 255
62.3354 14.4006 -12.1036  255 255 255
64.466 12.7194 -9.37679  255 255 255
-23.3103 35.0197 -37.2847  255 255 255
-13.4418 37.7853 -45.2232  255 255 255
-13.5843 38.8813 -47.5316  255 255 255
65.8587 11.1959 -7.27801  255 255 255
-22.0609 34.7311 -37.292  255 255 255
68.3141 9.0387 -3.40312  255 255 255
68.3141 9.0387 -3.40312  255 255 255
62.1492 14.0643 -12.749  255 255 255
30.3388 11.0069 -0.00565064  255 255 255
63.543 12.7604 -10.5855  255 255 255
68.1928 9.08366 -3.74577  255 255 255
24.4531 10.2296 2.8659  255 255 255
64.4579 12.1785 -9.68075  255 255 255
64.2259 12.3178 -9.94208  255 255 255
-23.4179 34.9951 -38.363  255 255 255
25.505 10.5618 1.67192  255 255 255
29.9945 10.5328 0.735715  255 255 255
58.7526 26.5688 -39.1499  255 255 255
-7.64544 40.0501 -53.5899  255 255 255
63.7709 12.3823 -11.0319  255 255 255
-7.45659 40.0665 -54.1095  255 255 255
62.8595 12.9438 -12.2178  255 255 255
-8.95952 39.045 -52.1108  255 255 255
-21.2007 35.379 -41.4365  255 255 255
7.96227 44.1455 -67.5321  255 255 255
21.1858 48.9323 -80.7505  255 255 255
-14.7448 37.1078 -47.993  255 255 255
10.7451 45.4412 -72.5122  255 255 255
29.3438 7.48074 5.34796  255 255 255
58.677 15.4827 -18.3778  255 255 255
7.9131 43.4094 -68.2809  255 255 255
-14.4104 36.8439 -48.2842  255 255 255
-18.7285 35.6706 -44.9033  255 255 255
-14.7071 36.3057 -47.3958  255 255 255
-7.49746 39.2939 -55.6967  255 255 255
68.9174 7.32433 -4.1193  255 255 255
-16.2448 36.1663 -46.9377  255 255 255
2.40212 41.0513 -61.864  255 255 255
28.0835 6.69217 6.62768  255 255 255
8.22348 42.0889 -65.8455  255 255 255
-17.1121 35.7075 -46.5489  255 255 255
-7.69934 38.7509 -55.649  255 255 255
63.8817 11.0485 -11.9301  255 255 255
17.9803 9.25823 2.82749  255 255 255
27.9929 6.22512 6.8324  255 255 255
25.0367 6.62278 6.69744  255 255 255
24.962 6.26383 7.28605  255 255 255
22.4329 6.70625 6.93606  255 255 255
60.7036 13.3214 -17.1966  255 255 255
25.3007 5.93276 7.5457  255 255 255
24.3991 5.94427 7.60345  255 255 255
64.5755 9.89935 -11.2582  255 255 255
-18.4094 34.512 -46.0462  255 255 255
-7.14288 38.1061 -57.1922  255 255 255
1.21671 40.3645 -65.0104  255 255 255
-18.5287 34.0953 -45.5684  255 255 255
17.578 8.1259 3.52222  255 255 255
55.9941 16.5534 -25.3823  255 255 255
15.9757 9.67101 0.289335  255 255 255
-3.84408 38.9189 -61.1734  255 255 255
64.8002 9.17589 -10.9385  255 255 255
65.5401 5.44447 -2.83608  255 255 255
65.5406 5.44465 -2.8366  255 255 255
22.5286 5.62296 7.42874  255 255 255
32.3394 40.1108 -74.4091  255 255 255
20.4675 6.08427 6.49353  255 255 255
11.1516 42.9853 -75.9579  255 255 255
16.4132 8.16007 2.82752  255 255 255
14.3997 43.5159 -78.3182  255 255 255
14.4176 43.5466 -78.179  255 255 255
15.9572 44.0512 -80.3652  255 255 255
22.9202 5.07015 7.8456  255 255 255
20.8376 5.47002 7.03472  255 255 255
66.7543 4.81239 -3.83882  255 255 255
20.758 5.26678 7.16148  255 255 255
58.7722 6.18378 -5.30635  255 255 255
64.717 8.32036 -11.852  255 255 255
-15.5338 33.994 -50.5221  255 255 255
55.5606 15.9036 -27.1424  255 255 255
-3.99028 37.5277 -62.216  255 255 255
66.2247 7.31615 -10.5313  255 255 255
66.203 7.30518 -10.4699  255 255 255
18.7229 5.71099 5.74276  255 255 255
20.7777 4.76292 7.4669  255 255 255
60.8436 11.0908 -18.6364  255 255 255
55.8493 14.9515 -26.0556  255 255 255
25.0661 37.3077 -71.0879  255 255 255
59.5151 12.0557 -21.0165  255 255 255
27.0943 36.9645 -71.7843  255 255 255
15.8415 7.49173 1.86362  255 255 255
-19.2631 32.2845 -47.8387  255 255 255
60.0673 11.441 -20.2873  255 255 255
-16.6183 32.9739 -50.5135  255 255 255
-8.49453 35.4117 -59.2942  255 255 255
-6.86125 35.501 -60.582  255 255 255
-13.9739 33.2802 -53.5357  255 255 255
64.5945 7.50461 -13.6927  255 255 255
63.9048 7.95022 -14.8604  255 255 255
16.2653 6.2417 3.11714  255 255 255
15.6124 6.613 2.46899  255 255 255
1.30894 37.5392 -69.3015  255 255 255
21.1219 3.74848 7.77785  255 255 255
-15.0179 32.8135 -52.8911  255 255 255
63.2326 8.33976 -15.9221  255 255 255
59.1228 11.6107 -22.5457  255 255 255
63.8452 7.66467 -14.6098  255 255 255
16.6206 5.42545 4.38534  255 255 255
57.7922 12.3455 -24.6035  255 255 255
-2.02024 35.9489 -66.9611  255 255 255
-3.81425 35.3258 -65.1223  255 255 255
16.4319 5.13378 4.09486  255 255 255
64.2043 6.74118 -14.9879  255 255 255
66.6714 3.70289 -8.29286  255 255 255
22.6315 2.50486 8.21394  255 255 255
62.1071 8.12913 -18.0965  255 255 255
19.8865 3.14747 7.44843  255 255 255
28.7693 1.69545 7.6797  255 255 255
68.8466 3.11203 -8.97323  255 255 255
28.6353 1.50559 8.00293  255 255 255
64.0683 6.35821 -15.8835  255 255 255
57.9659 10.8712 -26.1217  255 255 255
13.2743 8.27713 -5.90575  255 255 255
24.6126 1.24428 8.60462  255 255 255
-16.1948 27.7347 -49.8011  255 255 255
10.615 9.91748 -10.9697  255 255 255
61.9381 7.03119 -20.7153  255 255 255
60.0961 6.29425 -18.2553  255 255 255
15.478 3.66994 3.87559  255 255 255
62.594 6.21634 -19.3099  255 255 255
12.9036 6.94922 -4.45306  255 255 255
63.3621 5.56881 -18.4248  255 255 255
21.9796 0.930795 8.37296  255 255 255
21.9796 0.930796 8.37296  255 255 255
-8.90505 30.9824 -63.0309  255 255 255
63.6628 5.20281 -18.3766  255 255 255
63.4864 5.22851 -18.2269  255 255 255
18.5354 1.77376 6.79192  255 255 255
12.6804 6.37223 -3.72364  255 255 255
30.4245 0.0256516 7.11729  255 255 255
25.8982 -0.018384 8.6433  255 255 255
13.4726 4.51917 0.450521  255 255 255
20.4415 0.825653 7.83265  255 255 255
61.9519 5.97845 -21.9588  255 255 255
62.3545 2.18854 -12.0601  255 255 255
31.3411 -0.382334 6.5082  255 255 255
31.3411 -0.382326 6.50817  255 255 255
9.80497 7.23314 -7.10869  255 255 255
60.3145 6.44568 -24.7775  255 255 255
13.6135 3.47951 0.999291  255 255 255
23.4608 -0.484274 8.50778  255 255 255
23.4608 -0.484275 8.50778  255 255 255
28.3483 -0.887174 7.64197  255 255 255
13.7209 3.2288 1.29663  255 255 255
20.2178 0.127046 7.67938  255 255 255
12.0636 3.84435 -0.706008  255 255 255
23.4616 -0.90116 8.40879  255 255 255
41.2417 -0.873613 0.825411  255 255 255
28.6991 -1.60271 7.4698  255 255 255
28.719 -1.59083 7.4081  255 255 255
14.628 1.75456 3.05785  255 255 255
14.6345 1.7466 3.06989  255 255 255
27.2806 -1.68872 7.88632  255 255 255
65.0197 1.87839 -18.2835  255 255 255
65.2676 1.6355 -17.8902  255 255 255
20.7599 -0.864976 7.7403  255 255 255
64.7256 1.98003 -19.2377  255 255 255
14.8566 1.52037 2.69251  255 255 255
14.8566 1.52037 2.69252  255 255 255
21.5858 -1.23487 7.95656  255 255 255
24.2917 -1.75935 8.15051  255 255 255
30.2208 -2.2055 6.77108  255 255 255
28.6445 -2.38259 7.4135  255 255 255
-21.9087 24.0016 -53.6084  255 255 255
13.5585 0.883897 3.06137  255 255 255
7.73908 3.53332 -2.81281  255 255 255
7.89749 3.79173 -3.80156  255 255 255
64.3475 1.18377 -20.692  255 255 255
31.0062 -3.25416 7.35877  255 255 255
33.023 -3.46858 6.48043  255 255 255
66.578 -2.17821 -15.16  255 255 255
9.55092 1.90557 -1.49026  255 255 255
12.2117 0.137321 2.61941  255 255 255
66.3645 -1.49493 -18.1729  255 255 255
26.3259 -3.54761 7.57477  255 255 255
26.7781 -3.96766 8.55322  255 255 255
12.2716 -0.00817421 2.37799  255 255 255
15.523 -1.5232 5.84318  255 255 255
69.2505 -3.74086 -13.3738  255 255 255
66.7644 -1.84825 -18.6069  255 255 255
63.8255 -0.152323 -22.9411  255 255 255
62.2448 -0.578306 -20.8345  255 255 255
8.23764 0.900392 0.626768  255 255 255
67.4472 -2.68948 -17.0365  255 255 255
8.25478 0.854632 -0.167878  255 255 255
5.57787 12.9975 -41.284  255 255 255
16.0507 -2.6476 6.52237  255 255 255
67.1752 -3.60885 -17.31  255 255 255
16.7941 -3.23282 6.96549  255 255 255
21.9132 -4.59283 8.81294  255 255 255
16.6391 -3.33399 6.86689  255 255 255
67.4014 -4.06876 -18.3917  255 255 255
35.4999 -6.24048 6.66078  255 255 255
11.3824 -1.49795 2.86693  255 255 255
8.7114 -0.90011 2.04273  255 255 255
15.3847 -3.01257 5.99803  255 255 255
15.2559 -3.00935 5.91499  255 255 255
18.3607 -4.07723 7.8464  255 255 255
67.381 -4.21364 -19.2385  255 255 255
14.8503 -2.98728 5.56974  255 255 255
31.6946 -6.47347 8.31756  255 255 255
67.1666 -4.35584 -19.3083  255 255 255
15.0279 -3.19627 5.62972  255 255 255
15.0247 -3.19391 5.63481  255 255 255
35.2931 -6.63867 6.72217  255 255 255
16.8531 -3.88398 6.78702  255 255 255
22.6894 -5.41231 8.59857  255 255 255
24.5587 -5.87068 8.82438  255 255 255
30.2669 -6.8214 8.54814  255 255 255
34.3176 -7.05596 7.09559  255 255 255
9.8452 -2.20959 3.21997  255 255 255
12.7609 -3.21566 5.23196  255 255 255
17.6661 -4.55434 7.10555  255 255 255
18.4245 -4.78683 7.61067  255 255 255
73.2884 -5.86106 -21.056  255 255 255
34.8165 -7.08969 6.48669  255 255 255
68.7677 -6.34224 -17.1739  255 255 255
68.7677 -6.34224 -17.1739  255 255 255
8.82054 -1.76207 1.31198  255 255 255
-15.7643 12.0473 -38.4084  255 255 255
1.80956 9.47488 -38.5731  255 255 255
28.5954 -7.19232 9.32771  255 255 255
35.7741 -7.30416 5.31151  255 255 255
35.774 -7.30417 5.31161  255 255 255
70.9195 -6.27855 -20.3912  255 255 255
70.5365 -7.98514 -14.5952  255 255 255
13.9838 -4.40684 6.44466  255 255 255
10.7751 -3.45334 4.1199  255 255 255
12.1474 -4.42732 6.34648  255 255 255
10.4353 -3.3778 3.47398  255 255 255
9.57711 -3.51874 4.42765  255 255 255
13.5947 -4.94195 7.01439  255 255 255
3.9185 7.03997 -34.9858  255 255 255
70.6305 -8.80691 -15.004  255 255 255
27.9989 -8.09002 9.86174  255 255 255
30.1689 -8.3229 9.0712  255 255 255
25.8193 -8.12935 10.3376  255 255 255
10.3866 -3.74305 2.25264  255 255 255
12.4839 -5.45942 5.53881  255 255 255
12.4778 -5.47145 5.56263  255 255 255
17.3462 -7.23064 9.70702  255 255 255
18.0426 -7.60831 10.5884  255 255 255
26.7415 -8.83616 9.45828  255 255 255
-6.9982 6.21301 -32.2196  255 255 255
25.6258 -8.80902 9.75415  255 255 255
66.4367 -10.7671 -12.4976  255 255 255
19.3295 -7.86503 9.27174  255 255 255
20.4357 -8.19151 9.36539  255 255 255
0.241586 0.717394 -17.8011  255 255 255
-0.979312 0.738148 -17.6519  255 255 255
29.623 -10.0076 7.68678  255 255 255
19.1488 -8.45334 8.65563  255 255 255
25.2092 -9.64029 8.99502  255 255 255
30.5467 -10.4072 7.20318  255 255 255
24.0626 -9.93773 9.96245  255 255 255
14.9698 -7.63047 6.21647  255 255 255
-2.2209 1.84215 -26.6632  255 255 255
34.5941 -10.8592 3.39086  255 255 255
-1.47579 -0.859396 -15.7841  255 255 255
15.3177 -8.13515 5.85438  255 255 255
34.7739 -11.0193 3.10994  255 255 255
11.167 -6.72542 2.00801  255 255 255
34.0554 -11.1084 3.5506  255 255 255
-4.76936 1.1745 -26.3753  255 255 255
-18.921 3.71824 -28.276  255 255 255
-6.78869 1.16472 -25.6404  255 255 255
-1.32918 -1.90879 -14.3252  255 255 255
12.2596 -7.72954 3.51444  255 255 255
15.5785 -8.96132 5.44464  255 255 255
17.0694 -9.75591 8.07275  255 255 255
23.719 -11.0058 7.98017  255 255 255
32.9324 -12.0413 3.8398  255 255 255
23.7576 -11.0792 7.53486  255 255 255
30.4621 -12.2366 6.14151  255 255 255
12.5062 -8.28595 2.11214  255 255 255
13.1976 -8.64751 3.29295  255 255 255
22.563 -11.1153 7.35398  255 255 255
30.4741 -12.3491 5.83146  255 255 255
32.9696 -12.4591 3.34606  255 255 255
36.4252 -12.5412 0.467189  255 255 255
35.926 -12.5909 0.875568  255 255 255
-6.56017 -1.12647 -21.4559  255 255 255
-3.01071 -3.53679 -12.0508  255 255 255
-2.64107 -2.80197 -16.4938  255 255 255
28.6186 -12.3838 5.36442  255 255 255
-2.5573 -2.43273 -21.1221  255 255 255
24.8446 -12.0667 7.03907  255 255 255
19.1745 -11.3434 5.79162  255 255 255
21.4165 -12.0753 6.21069  255 255 255
23.6156 -12.688 6.44487  255 255 255
15.0338 -10.7719 3.80752  255 255 255
22.7463 -12.717 6.68435  255 255 255
23.0455 -12.7102 6.02015  255 255 255
23.6436 -12.9789 6.36383  255 255 255
-7.89314 -3.54139 -18.7479  255 255 255
-7.92793 -3.46621 -19.0799  255 255 255
14.9322 -10.9627 3.6037  255 255 255
15.1407 -11.0405 3.59596  255 255 255
15.3347 -11.1283 3.82917  255 255 255
15.3261 -11.1835 3.99792  255 255 255
26.3944 -13.5413 5.80479  255 255 255
14.8508 -11.0917 3.61314  255 255 255
19.7881 -12.4182 5.62993  255 255 255
12.995 -10.6033 1.44331  255 255 255
26.4744 -13.8541 4.62445  255 255 255
18.2612 -12.4679 4.74775  255 255 255
13.9998 -11.4366 1.90535  255 255 255
14.0678 -11.4427 1.81369  255 255 255
20.8152 -13.2961 5.28181  255 255 255
-12.0298 -4.78154 -15.1898  255 255 255
12.8938 -11.423 0.468706  255 255 255
13.5716 -11.7307 0.718987  255 255 255
13.0369 -11.9938 0.551056  255 255 255
4.73191 -9.99041 -9.15796  255 255 255
23.778 -15.484 5.2687  255 255 255
17.4947 -14.2577 4.15029  255 255 255
-1.3063 -9.00731 -12.4699  255 255 255
6.22527 -11.3397 -5.93754  255 255 255
-0.511656 -10.6227 -10.5826  255 255 255
10.7703 -14.168 0.965411  255 255 255
11.2099 -14.4312 1.15025  255 255 255
-1.78584 -11.1886 -9.51635  255 255 255
23.3109 -18.1122 6.01661  255 255 255
11.6417 -15.7934 0.16878  255 255 255
10.5025 -15.6033 -0.343409  255 255 255
20.3024 -17.9934 4.74179  255 255 255
-3.07101 -12.763 -6.44214  255 255 255
16.4924 -17.2525 4.21534  255 255 255
15.9683 -17.2519 3.908  255 255 255
15.9973 -17.6885 3.26107  255 255 255
10.2264 -16.2741 -0.673286  255 255 255
-7.4494 -13.1321 -6.7226  255 255 255
37.9135 -23.4079 1.50931  255 255 255
37.4561 -25.441 7.86479  255 255 255
36.6267 -25.4118 7.83054  255 255 255
37.9879 -25.9772 8.59143  255 255 255
31.4497 -24.0984 2.78425  255 255 255
35.828 -25.3365 2.6912  255 255 255
19.8686 -21.8485 5.46982  255 255 255
30.8322 -24.7507 1.51459  255 255 255
29.2855 -25.1886 2.87544  255 255 255
17.5473 -22.5392 5.17243  255 255 255
30.0582 -26.0147 4.04467  255 255 255
18.7833 -23.3874 6.37306  255 255 255
20.4975 -24.0972 6.94701  255 255 255
20.3704 -24.0009 7.01559  255 255 255
26.8061 82.8159 -50.9704  255 255 255
25.8826 81.9145 -52.0687  255 255 255
20.5542 78.221 -48.0782  255 255 255
20.5825 78.2939 -48.1408  255 255 255
24.7522 80.5581 -51.5895  255 255 255
26.6131 81.4413 -52.6859  255 255 255
25.2067 80.5149 -51.7692  255 255 255
35.7394 85.666 -59.0166  255 255 255
44.5356 90.1278 -64.8612  255 255 255
46.6363 91.4447 -66.5512  255 255 255
36.3916 85.8268 -59.6239  255 255 255
35.16 84.9988 -58.7553  255 255 255
45.7814 90.6339 -66.0708  255 255 255
63.1208 98.9749 -76.6616  255 255 255
23.4834 78.9879 -51.3687  255 255 255
54.0972 94.4762 -71.303  255 255 255
53.991 94.3293 -71.0934  255 255 255
46.0317 90.2968 -66.3578  255 255 255
46.0605 90.4146 -66.4692  255 255 255
24.1862 78.9814 -51.9027  255 255 255
24.6188 79.0155 -52.442  255 255 255
24.3678 78.6459 -52.9691  255 255 255
38.9907 86.1172 -62.7488  255 255 255
25.6072 78.8641 -53.5363  255 255 255
63.1148 97.6506 -78.2217  255 255 255
54.8042 93.1901 -72.8479  255 255 255
55.4282 58.9719 -30.4093  255 255 255
54.1969 54.9461 -25.2369  255 255 255
57.5991 94.6384 -75.287  255 255 255
55.4856 52.1575 -21.9923  255 255 255
1.25947 65.2174 -36.2174  255 255 255
43.6574 87.4539 -66.2229  255 255 255
54.9209 53.5048 -24.1261  255 255 255
31.0346 81.0508 -58.0025  255 255 255
11.0657 70.6726 -43.9566  255 255 255
19.5621 74.883 -50.0361  255 255 255
54.0935 40.0596 -7.317  255 255 255
9.8505 70.0104 -43.3445  255 255 255
31.5955 80.9915 -58.5786  255 255 255
53.5924 55.4948 -27.333  255 255 255
17.9929 73.8038 -49.2473  255 255 255
24.2202 77.0011 -53.5833  255 255 255
16.7918 72.0417 -46.9696  255 255 255
33.9081 82.0176 -60.453  255 255 255
29.3072 79.5386 -57.4966  255 255 255
-1.39815 64.4977 -36.6832  255 255 255
59.603 37.4801 -4.93911  255 255 255
-21.8809 52.6832 -20.0757  255 255 255
53.1196 90.5706 -73.7378  255 255 255
-3.23055 63.1235 -35.8124  255 255 255
11.8352 70.1072 -45.9577  255 255 255
11.8572 70.2145 -46.0945  255 255 255
-4.3458 62.5541 -35.163  255 255 255
50.263 33.2121 -0.0682645  255 255 255
15.9867 71.8468 -48.7905  255 255 255
52.9316 33.5029 -0.777305  255 255 255
29.9144 78.9459 -58.8565  255 255 255
55.8258 37.6664 -6.36589  255 255 255
59.8395 46.7317 -18.5596  255 255 255
9.36867 67.9228 -43.8341  255 255 255
12.9662 70.3273 -47.4518  255 255 255
56.2962 36.3205 -5.10497  255 255 255
-4.95746 61.5233 -34.682  255 255 255
58.2238 33.8402 -1.9214  255 255 255
15.8458 71.9587 -50.1019  255 255 255
8.57499 67.7522 -44.1359  255 255 255
65.7878 95.3382 -83.4011  255 255 255
56.2669 36.2982 -5.51932  255 255 255
58.414 33.8345 -2.37594  255 255 255
20.5714 73.5853 -53.0673  255 255 255
59.3298 91.9955 -79.4043  255 255 255
61.5555 35.0334 -4.2982  255 255 255
-18.4747 54.4361 -25.0918  255 255 255
58.5343 33.5929 -2.50569  255 255 255
50.649 24.6998 9.66656  255 255 255
50.6506 24.701 9.66494  255 255 255
54.2584 89.1018 -76.0188  255 255 255
25.3154 75.3923 -56.6425  255 255 255
54.1475 53.0313 -28.5502  255 255 255
17.3366 71.5214 -51.0493  255 255 255
58.7636 33.4245 -2.77212  255 255 255
51.1668 24.388 9.68092  255 255 255
32.8451 78.1876 -61.504  255 255 255
53.4515 21.8339 12.8577  255 255 255
53.2761 88.1523 -76.2045  255 255 255
51.0732 22.3213 11.7701  255 255 255
10.3708 67.2664 -46.77  255 255 255
-21.1573 52.0484 -23.6606  255 255 255
-21.1365 52.0317 -23.6497  255 255 255
8.88007 66.4534 -45.8242  255 255 255
8.87758 66.5043 -46.0023  255 255 255
68.3217 98.3652 -92.6868  255 255 255
61.8727 90.6151 -82.0727  255 255 255
11.5418 67.6377 -48.444  255 255 255
65.2315 92.34 -85.0495  255 255 255
93.8333 110.261 -111.52  255 255 255
50.8182 85.2932 -75.779  255 255 255
47.4203 83.6768 -73.8106  255 255 255
54.9938 36.1886 -9.24469  255 255 255
58.6692 46.1142 -23.1469  255 255 255
59.458 31.6847 -3.30311  255 255 255
59.458 31.6847 -3.30311  255 255 255
-18.632 52.4783 -26.4808  255 255 255
48.4228 83.0827 -74.0867  255 255 255
42.7205 80.514 -70.5598  255 255 255
27.3254 73.185 -60.3172  255 255 255
57.1266 86.791 -81.2835  255 255 255
47.1699 81.9739 -75.19  255 255 255
-3.17818 58.393 -38.0472  255 255 255
33.6584 75.7159 -65.6455  255 255 255
2.83374 61.6046 -44.2686  255 255 255
15.8718 66.9238 -53.3868  255 255 255
33.5182 74.9679 -66.033  255 255 255
57.0551 85.6645 -83.247  255 255 255
57.1904 85.776 -83.3666  255 255 255
58.5284 85.5677 -83.2032  255 255 255
66.181 90.0316 -90.0329  255 255 255
-18.3276 50.8903 -27.7573  255 255 255
40.8728 76.946 -71.5213  255 255 255
40.9113 77.0684 -71.7162  255 255 255
24.4647 70.0588 -60.5955  255 255 255
24.4944 70.229 -60.9364  255 255 255
-6.9917 56.072 -37.6025  255 255 255
41.4185 76.8326 -71.6522  255 255 255
87.3284 103.352 -113.82  255 255 255
55.3713 34.0494 -11.3216  255 255 255
40.5317 76.68 -71.8665  255 255 255
60.2773 41.6001 -22.4236  255 255 255
27.1262 70.5211 -61.8866  255 255 255
54.7813 47.5759 -31.0749  255 255 255
14.7244 65.6257 -54.1859  255 255 255
-19.9732 49.2648 -27.3363  255 255 255
-12.7973 52.7798 -33.3434  255 255 255
-7.54724 54.6779 -36.8662  255 255 255
47.8788 79.9671 -79.174  255 255 255
41.5481 76.4843 -73.248  255 255 255
-18.5025 49.9273 -28.8084  255 255 255
-8.03962 54.4267 -36.659  255 255 255
49.489 80.3584 -80.1116  255 255 255
33.41 72.863 -67.8824  255 255 255
37.9635 75.0992 -71.5824  255 255 255
5.39938 60.2332 -47.0516  255 255 255
56.525 44.7765 -28.999  255 255 255
58.147 83.714 -86.7146  255 255 255
95.6633 105.19 -121.346  255 255 255
-11.4074 52.0531 -33.8815  255 255 255
56.4487 47.3929 -33.7489  255 255 255
57.3513 42.6739 -26.903  255 255 255
39.0512 75.1825 -73.9924  255 255 255
35.9387 72.9363 -70.2845  255 255 255
56.3243 82.2424 -85.5858  255 255 255
59.9698 40.8321 -24.6162  255 255 255
66.4371 85.5274 -91.6575  255 255 255
-10.5882 53.0123 -36.3993  255 255 255
51.2709 79.8769 -82.7433  255 255 255
-11.7987 51.8581 -35.0204  255 255 255
-11.5811 49.7235 -31.91  255 255 255
13.6236 62.6668 -54.3558  255 255 255
7.9309 60.2521 -50.8254  255 255 255
-19.5474 48.073 -29.0624  255 255 255
-9.4425 52.5689 -37.2845  255 255 255
-9.40443 52.3999 -37.1174  255 255 255
70.1597 86.7238 -96.8077  255 255 255
58.0313 81.4766 -88.0249  255 255 255
27.7842 68.5944 -66.0511  255 255 255
-3.99227 54.9529 -41.8959  255 255 255
30.5497 69.8311 -68.4015  255 255 255
-22.9364 46.5526 -27.0413  255 255 255
28.7532 68.9346 -67.1545  255 255 255
0.078491 56.5228 -45.2242  255 255 255
49.9728 77.884 -83.1926  255 255 255
49.4973 76.8056 -81.1729  255 255 255
-12.7118 50.5942 -35.1905  255 255 255
59.4215 81.8987 -90.7313  255 255 255
-20.9798 42.0026 -21.2811  255 255 255
61.555 25.661 -4.76035  255 255 255
57.3868 81.2029 -90.4022  255 255 255
56.4822 79.7959 -88.1286  255 255 255
59.0405 27.316 -7.58395  255 255 255
2.93706 56.7015 -47.8682  255 255 255
74.8888 86.8995 -101.492  255 255 255
56.1768 30.0692 -12.0746  255 255 255
3.49223 56.9127 -48.7198  255 255 255
-12.7053 49.8209 -35.6851  255 255 255
70.6482 84.701 -98.9922  255 255 255
11.6805 60.3092 -55.3865  255 255 255
11.6919 60.2038 -55.2619  255 255 255
59.5312 38.9867 -26.9937  255 255 255
-11.3313 50.6061 -37.3887  255 255 255
-11.3595 50.6161 -37.3888  255 255 255
54.2793 31.3706 -14.5552  255 255 255
54.2793 31.3706 -14.5551  255 255 255
37.1369 73.4099 -78.8496  255 255 255
20.2835 63.7115 -62.0547  255 255 255
19.5525 63.4551 -61.7911  255 255 255
18.1598 62.684 -60.8384  255 255 255
-17.064 47.7931 -32.9505  255 255 255
17.4017 62.0282 -59.7767  255 255 255
17.4781 62.3041 -60.31  255 255 255
16.6349 61.8837 -59.6882  255 255 255
16.6424 61.8404 -59.6243  255 255 255
-6.97957 51.1921 -39.9346  255 255 255
-21.8241 45.6459 -29.4451  255 255 255
17.6373 61.4744 -60.4132  255 255 255
55.5829 77.4553 -90.0089  255 255 255
53.4178 76.3785 -88.4145  255 255 255
40.4437 69.9556 -78.3756  255 255 255
40.6465 70.3351 -79.0559  255 255 255
62.949 79.1769 -95.9138  255 255 255
70.1656 81.8694 -101.664  255 255 255
70.1655 81.8693 -101.664  255 255 255
70.6487 81.5064 -101.328  255 255 255
37.6748 69.1374 -78.2246  255 255 255
70.6798 82.9693 -104.286  255 255 255
-1.58962 52.7 -47.0901  255 255 255
-20.3682 44.9283 -31.919  255 255 255
59.9069 24.7312 -8.95504  255 255 255
56.5413 27.1866 -13.5375  255 255 255
63.9313 77.813 -98.4381  255 255 255
60.327 76.1378 -96.2811  255 255 255
56.834 73.4621 -92.2277  255 255 255
54.066 72.5256 -91.2117  255 255 255
59.9246 34.9928 -29.4055  255 255 255
61.2602 21.1095 -6.73459  255 255 255
29.091 62.5007 -73.9741  255 255 255
69.7889 77.7528 -105.525  255 255 255
59.47 23.2816 -10.7605  255 255 255
55.8828 37.2694 -35.6961  255 255 255
2.0859 51.2069 -52.4965  255 255 255
58.3302 35.2643 -33.5245  255 255 255
54.3309 26.9609 -18.8298  255 255 255
57.8328 35.1653 -34.0721  255 255 255
16.4685 56.0691 -65.1611  255 255 255
13.4401 54.7317 -63.7641  255 255 255
26.6555 58.4526 -72.5839  255 255 255
-13.3156 44.4437 -41.2104  255 255 255
15.0932 54.7691 -64.6051  255 255 255
58.7098 33.7039 -33.4392  255 255 255
27.3859 57.9022 -73.4555  255 255 255
16.8994 55.5701 -67.8013  255 255 255
26.1768 58.1714 -74.5238  255 255 255
58.384 32.7694 -34.5548  255 255 255
61.4027 19.1277 -10.008  255 255 255
55.3417 24.1709 -18.6534  255 255 255
55.6062 24.2059 -19.4481  255 255 255
3.04378 48.7823 -57.5453  255 255 255
55.5455 34.3389 -40.2367  255 255 255
59.8195 19.7154 -13.5037  255 255 255
59.7889 19.7234 -13.5612  255 255 255
60.0684 19.0687 -12.7157  255 255 255
-3.53124 45.7793 -52.8232  255 255 255
-20.2168 39.5728 -37.8572  255 255 255
56.332 65.6906 -101.785  255 255 255
55.0529 23.1549 -20.3833  255 255 255
25.9049 55.5854 -77.8917  255 255 255
62.3295 16.6868 -10.2909  255 255 255
65.1452 13.9771 -5.89198  255 255 255
-14.3459 40.6647 -43.4959  255 255 255
62.0408 15.9352 -10.228  255 255 255
22.1248 53.205 -76.4256  255 255 255
61.6925 16.1712 -11.2383  255 255 255
61.4256 14.58 -8.34064  255 255 255
-21.8643 37.6139 -37.7818  255 255 255
57.2415 30.624 -39.8949  255 255 255
-9.49476 42.1376 -50.0076  255 255 255
-9.50775 42.2092 -50.1111  255 255 255
61.8818 15.9317 -11.9112  255 255 255
54.7656 21.6348 -23.3621  255 255 255
-15.9637 38.8727 -43.8656  255 255 255
33.811 55.1344 -86.8284  255 255 255
64.0244 13.7099 -9.74309  255 255 255
9.03281 47.0417 -67.8676  255 255 255
68.208 9.61411 -3.17582  255 255 255
59.4611 10.5233 -3.65071  255 255 255
62.2562 14.2674 -12.3918  255 255 255
25.2217 11.2578 0.431624  255 255 255
57.7403 17.414 -19.3597  255 255 255
7.75268 45.3775 -67.8901  255 255 255
65.238 11.362 -8.48926  255 255 255
-19.4306 36.4154 -42.8238  255 255 255
58.3004 16.5783 -18.3252  255 255 255
12.8009 46.5432 -72.1182  255 255 255
-14.8524 37.3662 -47.8256  255 255 255
2.24539 42.7897 -64.1382  255 255 255
29.4606 7.5123 5.54623  255 255 255
-19.3125 35.6348 -43.7261  255 255 255
-17.3944 36.1752 -45.4473  255 255 255
-17.3895 36.1702 -45.4539  255 255 255
59.663 15.1249 -17.7392  255 255 255
59.7756 15.1716 -17.8868  255 255 255
29.9298 7.41232 5.22796  255 255 255
9.20595 42.9019 -66.7838  255 255 255
62.9165 12.1439 -12.8022  255 255 255
-23.5316 34.1182 -39.942  255 255 255
66.9315 8.67229 -6.71143  255 255 255
28.332 6.50017 6.80126  255 255 255
-12.9947 35.5119 -47.7213  255 255 255
21.4933 47.5261 -83.1581  255 255 255
17.286 10.2083 0.508755  255 255 255
-18.3576 34.885 -45.8383  255 255 255
61.07 12.6855 -16.1048  255 255 255
13.6368 44.5508 -76.5281  255 255 255
22.2145 6.59275 6.4424  255 255 255
-23.0514 32.8819 -40.9961  255 255 255
16.459 9.88697 0.226569  255 255 255
11.6895 43.5546 -74.5377  255 255 255
31.3964 41.5052 -75.8503  255 255 255
-17.7348 34.3808 -47.4078  255 255 255
59.4257 13.3562 -19.9988  255 255 255
23.9592 5.07112 7.99918  255 255 255
55.1195 16.6191 -26.2612  255 255 255
59.072 11.4218 -15.8433  255 255 255
17.8179 7.21945 4.30547  255 255 255
65.1642 8.63036 -11.4571  255 255 255
29.7538 4.59618 6.93928  255 255 255
20.0019 5.70572 6.59765  255 255 255
9.2097 41.2559 -73.961  255 255 255
17.4106 6.62499 4.51027  255 255 255
18.3374 5.9714 5.36455  255 255 255
24.0422 37.9401 -71.6857  255 255 255
11.7288 41.0201 -77.1209  255 255 255
62.5883 9.21747 -15.4627  255 255 255
62.5883 9.21748 -15.4628  255 255 255
25.7435 3.39482 8.51589  255 255 255
7.73978 39.7848 -74.5047  255 255 255
-15.4768 32.4082 -50.9609  255 255 255
33.4145 3.72862 4.58461  255 255 255
14.8054 7.00788 1.42871  255 255 255
-18.363 31.5979 -49.5336  255 255 255
-15.0859 32.6315 -53.4329  255 255 255
-15.0859 32.6315 -53.4329  255 255 255
-13.5207 32.6563 -54.8846  255 255 255
2.93458 37.219 -71.4045  255 255 255
-16.7801 31.675 -51.5956  255 255 255
2.36814 36.9625 -70.8223  255 255 255
20.9012 33.4355 -66.9943  255 255 255
30.3105 2.50761 6.53843  255 255 255
22.5824 2.72979 8.29735  255 255 255
63.5319 7.48967 -16.1603  255 255 255
66.5546 4.79707 -11.8689  255 255 255
22.7149 33.0007 -70.2693  255 255 255
64.592 6.12335 -14.8973  255 255 255
19.4453 3.09991 7.09369  255 255 255
24.7385 1.78514 8.63541  255 255 255
63.5572 6.88816 -16.9025  255 255 255
-0.620216 35.3585 -70.0297  255 255 255
67.0417 4.35286 -12.3762  255 255 255
18.4125 2.93339 6.57963  255 255 255
13.9277 5.63793 0.167743  255 255 255
64.4932 5.29859 -15.9817  255 255 255
19.7545 1.99085 7.39237  255 255 255
32.6066 1.16773 5.13221  255 255 255
64.6241 4.82076 -16.2348  255 255 255
66.2649 3.66417 -13.813  255 255 255
66.276 3.65831 -13.8034  255 255 255
-5.49668 31.6632 -64.8588  255 255 255
67.0097 2.54579 -13.3445  255 255 255
16.5968 2.45469 4.79977  255 255 255
62.2108 5.61903 -21.0307  255 255 255
15.1697 2.88791 3.5716  255 255 255
26.0338 -0.263665 8.44791  255 255 255
12.2474 5.34425 -2.39972  255 255 255
20.9939 0.251395 7.96546  255 255 255
8.32057 7.62376 -8.98608  255 255 255
66.6746 1.72216 -14.8394  255 255 255
11.3872 4.48566 -1.45532  255 255 255
11.2672 4.04965 -0.584322  255 255 255
28.0589 -1.13125 7.76389  255 255 255
66.8774 1.26487 -14.9341  255 255 255
17.3959 0.81129 5.9794  255 255 255
11.7274 3.71316 -0.734993  255 255 255
17.8191 0.461726 6.36825  255 255 255
27.6049 -1.2471 7.2768  255 255 255
29.387 -1.86365 7.12818  255 255 255
12.7525 2.55426 0.746111  255 255 255
63.7149 -0.58798 -11.3756  255 255 255
66.388 0.531209 -16.5438  255 255 255
66.3965 0.514083 -16.5388  255 255 255
28.2933 -2.13144 7.48604  255 255 255
31.9284 -2.34515 5.86201  255 255 255
69.1945 -1.37558 -14.1872  255 255 255
7.41083 3.49426 -3.58742  255 255 255
11.331 1.41811 1.00758  255 255 255
68.5171 -2.19811 -13.8946  255 255 255
6.45315 16.3917 -46.9642  255 255 255
14.5826 -0.70845 4.80929  255 255 255
62.1003 2.00347 -26.0463  255 255 255
23.5362 -2.98888 7.75219  255 255 255
68.8946 -2.80791 -15.8391  255 255 255
16.4496 -2.08164 6.45762  255 255 255
12.5777 -0.941278 3.75609  255 255 255
68.7411 -3.76472 -15.4308  255 255 255
72.6434 -3.37223 -19.8708  255 255 255
8.43407 -0.553317 2.77336  255 255 255
-8.45896 15.0319 -43.5255  255 255 255
64.5754 -1.79239 -23.426  255 255 255
32.9062 -5.95255 7.58027  255 255 255
33.1529 -6.06754 7.73265  255 255 255
8.95544 -0.991598 2.93284  255 255 255
8.76344 -1.05471 2.89356  255 255 255
9.12599 -1.02024 2.37649  255 255 255
33.451 -6.42741 8.11056  255 255 255
9.00455 -1.14621 2.3562  255 255 255
15.1542 -3.10633 5.78942  255 255 255
33.8316 -6.47088 7.37042  255 255 255
69.0207 -5.98013 -16.6764  255 255 255
69.4939 -6.84201 -16.0098  255 255 255
70.4342 -7.69212 -14.4476  255 255 255
1.25113 8.54717 -35.1617  255 255 255
1.52419 8.45544 -33.671  255 255 255
13.0668 -4.33611 6.53385  255 255 255
10.5379 -3.69782 5.59537  255 255 255
10.8838 -3.60147 4.1988  255 255 255
23.9951 -7.37767 9.80093  255 255 255
33.2239 -8.13949 6.88636  255 255 255
33.6452 -8.14034 6.59205  255 255 255
33.6452 -8.14035 6.59208  255 255 255
11.6022 -4.80563 7.40463  255 255 255
23.4387 -7.92342 10.3366  255 255 255
14.8522 -5.89816 7.56547  255 255 255
24.5765 -8.27105 10.7146  255 255 255
34.7033 -8.60901 5.05183  255 255 255
15.6292 -6.24997 7.93549  255 255 255
19.5143 -7.64682 9.57278  255 255 255
-3.38898 5.39643 -29.162  255 255 255
9.98425 -4.46939 1.20012  255 255 255
19.1267 -7.95578 9.10965  255 255 255
26.1885 -9.24218 9.21847  255 255 255
26.1857 -9.23926 9.22501  255 255 255
24.0406 -9.08173 9.99744  255 255 255
25.8006 -9.5971 9.51096  255 255 255
-0.12669 0.539782 -17.2566  255 255 255
26.0628 -9.78624 8.7473  255 255 255
-11.9772 3.94212 -28.8323  255 255 255
14.0125 -7.33112 5.34094  255 255 255
23.7072 -10.0242 9.85238  255 255 255
20.5044 -9.18444 8.4783  255 255 255
15.6359 -7.96325 6.52465  255 255 255
33.5281 -10.6517 4.1464  255 255 255
15.5114 -7.99008 6.3481  255 255 255
23.8653 -10.0601 8.99356  255 255 255
23.2542 -9.99371 8.63617  255 255 255
14.9153 -8.03502 5.65569  255 255 255
33.1393 -10.9403 4.35776  255 255 255
20.8265 -9.613 8.16508  255 255 255
14.6076 -8.04268 5.17056  255 255 255
-5.57468 1.29941 -25.9148  255 255 255
56.3938 -12.9506 -9.18714  255 255 255
-1.30685 -0.225667 -22.9794  255 255 255
-4.82905 -1.41098 -15.1299  255 255 255
-4.86626 -1.24332 -15.224  255 255 255
36.5252 -11.7561 1.27433  255 255 255
36.5218 -11.6662 0.893088  255 255 255
23.7379 -10.8908 8.50042  255 255 255
32.7845 -11.7674 4.29087  255 255 255
21.0235 -10.4371 7.37828  255 255 255
-2.2158 -1.07447 -21.8193  255 255 255
30.5084 -12.2481 6.37451  255 255 255
19.031 -10.3686 6.64003  255 255 255
26.2532 -11.9413 6.33085  255 255 255
-0.892651 -2.53536 -21.3994  255 255 255
14.5528 -9.54695 3.77521  255 255 255
-3.64514 -2.30928 -20.4311  255 255 255
21.4215 -11.6446 6.53864  255 255 255
27.7072 -12.7411 5.92021  255 255 255
10.1602 -8.54696 -0.338152  255 255 255
21.4749 -11.8043 6.29106  255 255 255
10.2101 -8.76306 -0.465555  255 255 255
21.7075 -12.0814 6.1695  255 255 255
10.8356 -9.02152 -0.618713  255 255 255
-2.29055 -3.9587 -19.1727  255 255 255
-2.28989 -3.94927 -19.1266  255 255 255
-3.09687 -3.84766 -19.7055  255 255 255
23.7404 -12.7317 6.57573  255 255 255
-2.45218 -4.02815 -18.2437  255 255 255
26.6467 -13.1232 5.37494  255 255 255
-6.07473 -3.84135 -18.6559  255 255 255
23.4147 -12.8799 6.3173  255 255 255
-5.22436 -4.13922 -18.4919  255 255 255
14.1384 -10.9876 1.93102  255 255 255
13.9276 -11.047 2.65708  255 255 255
15.344 -11.5117 3.52821  255 255 255
-12.8865 -3.38393 -19.3916  255 255 255
22.6499 -13.3872 5.33211  255 255 255
42.1597 -16.0142 -3.63252  255 255 255
-3.49055 -5.89081 -16.4008  255 255 255
13.2386 -11.2905 0.954054  255 255 255
12.9008 -11.2844 0.778269  255 255 255
14.0183 -11.7317 1.68605  255 255 255
14.0183 -11.7317 1.68607  255 255 255
-8.39121 -5.60049 -16.5064  255 255 255
-0.877092 -7.6427 -14.9326  255 255 255
-7.49311 -6.65962 -15.1959  255 255 255
-6.67024 -6.9298 -14.9273  255 255 255
40.2363 -17.8895 0.244565  255 255 255
31.0904 -16.7428 5.14991  255 255 255
11.5825 -12.4322 -0.228489  255 255 255
24.3323 -15.7785 4.75162  255 255 255
-0.579696 -9.4944 -11.9467  255 255 255
22.4142 -15.6016 3.47696  255 255 255
-3.4115 -9.09515 -12.31  255 255 255
-0.466572 -9.81609 -11.7726  255 255 255
24.0043 -16.9639 5.88645  255 255 255
9.95171 -13.8133 0.829521  255 255 255
23.728 -17.1437 6.12858  255 255 255
-3.35172 -10.7248 -8.51941  255 255 255
10.641 -14.2509 0.825202  255 255 255
9.96158 -14.9201 -0.150849  255 255 255
37.4134 -21.0844 -0.185478  255 255 255
-5.34602 -12.7204 -7.36591  255 255 255
-1.01553 -13.8598 -5.93835  255 255 255
-5.77877 -12.9302 -7.41652  255 255 255
-6.05344 -13.4239 -6.48821  255 255 255
37.6426 -24.4025 1.47013  255 255 255
34.1189 -25.699 8.53437  255 255 255
34.4788 -25.8008 8.53567  255 255 255
38.0479 -27.2642 3.18832  255 255 255
37.1553 -27.1082 4.74368  255 255 255
7.76161 -20.5068 2.96265  255 255 255
22.5392 -24.1619 7.45296  255 255 255
22.7391 -24.5029 7.86309  255 255 255
23.7496 -25.2252 8.8184  255 255 255
13.4316 75.7042 -44.0536  255 255 255
20.3674 78.7207 -47.8196  255 255 255
41.6094 89.8615 -61.8256  255 255 255
21.6087 79.4921 -49.0722  255 255 255
45.6528 91.0306 -64.1568  255 255 255
47.9659 92.1152 -65.3156  255 255 255
39.2352 87.5259 -59.9477  255 255 255
23.3405 79.4966 -50.5156  255 255 255
34.5305 84.6146 -58.9709  255 255 255
13.0982 72.6159 -45.1769  255 255 255
13.1222 72.7305 -45.3206  255 255 255
45.8937 88.6558 -67.3828  255 255 255
46.7841 89.247 -68.094  255 255 255
46.8263 89.1957 -68.0647  255 255 255
50.3377 90.9893 -70.4274  255 255 255
50.3214 90.8428 -70.249  255 255 255
35.0818 83.266 -60.3784  255 255 255
38.4489 84.8815 -62.654  255 255 255
38.4544 85.1422 -62.9725  255 255 255
12.0257 71.4685 -44.6925  255 255 255
14.0397 72.4208 -45.9154  255 255 255
41.8791 86.7725 -65.1223  255 255 255
-3.64765 60.7096 -30.5169  255 255 255
56.5953 93.2891 -74.8354  255 255 255
24.8875 77.9267 -54.2381  255 255 255
53.416 55.6609 -27.9475  255 255 255
-16.3097 52.2434 -19.606  255 255 255
-14.254 52.2882 -20.1903  255 255 255
25.9019 77.2182 -54.4474  255 255 255
24.8294 77.0284 -54.5456  255 255 255
30.1151 79.9192 -58.5587  255 255 255
55.0226 38.4778 -6.59466  255 255 255
16.6102 72.494 -48.9294  255 255 255
15.4851 71.4373 -47.577  255 255 255
53.586 90.3683 -74.6372  255 255 255
22.9827 75.2971 -53.8719  255 255 255
-2.71327 62.703 -35.7904  255 255 255
20.05 73.641 -51.7027  255 255 255
57.5773 31.8766 1.3821  255 255 255
61.7247 35.1488 -3.24921  255 255 255
59.4626 32.5625 0.183461  255 255 255
19.178 73.2794 -51.2472  255 255 255
34.9498 80.8237 -61.9982  255 255 255
-22.0008 52.7719 -21.6261  255 255 255
-20.9438 53.4935 -22.5657  255 255 255
61.8084 33.6976 -1.53856  255 255 255
60.5644 35.5369 -4.14959  255 255 255
11.0509 68.1537 -44.5833  255 255 255
11.2244 69.0961 -45.8839  255 255 255
-6.73959 60.2348 -33.0369  255 255 255
27.1091 77.0665 -57.3845  255 255 255
51.1775 22.4252 13.3048  255 255 255
57.8863 34.0915 -2.45886  255 255 255
26.2646 76.4811 -56.8403  255 255 255
57.6576 35.8284 -5.10914  255 255 255
59.3417 32.7241 -1.11889  255 255 255
49.779 25.6245 8.64912  255 255 255
-17.0021 54.8491 -26.2854  255 255 255
-5.71354 60.2544 -34.1922  255 255 255
34.1394 79.6539 -62.53  255 255 255
34.1393 79.6538 -62.5299  255 255 255
24.5528 74.7906 -55.9362  255 255 255
56.6297 36.1406 -6.34724  255 255 255
-17.5085 54.442 -25.9301  255 255 255
-12.0743 57.1011 -30.211  255 255 255
9.26874 67.2354 -45.6247  255 255 255
11.3889 68.1693 -47.0937  255 255 255
36.1394 79.6027 -64.0731  255 255 255
26.7565 75.0199 -57.8125  255 255 255
26.7411 75.2314 -58.0164  255 255 255
32.7508 78.0357 -62.4461  255 255 255
-21.2193 51.4246 -22.8864  255 255 255
33.883 77.608 -62.6542  255 255 255
35.8144 78.4133 -63.8995  255 255 255
33.5864 77.8754 -63.8031  255 255 255
59.3504 89.5402 -80.9217  255 255 255
58.4344 47.5181 -23.8761  255 255 255
9.10994 65.1186 -45.1939  255 255 255
9.26466 65.9516 -46.2663  255 255 255
15.65 68.8581 -50.5437  255 255 255
58.6947 46.1791 -22.268  255 255 255
21.3176 71.9587 -55.3648  255 255 255
38.4531 79.5269 -67.3375  255 255 255
45.8459 83.3908 -73.5151  255 255 255
-13.1002 54.2842 -29.6752  255 255 255
48.9035 83.5673 -75.9878  255 255 255
58.2683 87.495 -82.5174  255 255 255
12.7616 66.4779 -50.2502  255 255 255
76.5357 96.0305 -96.7244  255 255 255
75.9543 94.9146 -95.1584  255 255 255
45.0264 80.8117 -73.8103  255 255 255
-0.754073 60.3452 -41.7746  255 255 255
8.76389 63.3136 -47.8586  255 255 255
8.80629 63.2006 -47.7425  255 255 255
47.6184 81.3821 -76.2805  255 255 255
59.9346 30.1641 -4.05136  255 255 255
59.7954 30.0441 -3.82904  255 255 255
46.5471 80.5786 -75.102  255 255 255
46.7915 81.2333 -76.0904  255 255 255
43.5481 79.3296 -73.4328  255 255 255
65.3902 89.1831 -88.7683  255 255 255
3.8174 61.1528 -44.6964  255 255 255
77.3806 95.2188 -99.4737  255 255 255
11.7851 64.6202 -51.25  255 255 255
12.6733 64.9228 -51.6734  255 255 255
47.3039 80.6092 -76.8508  255 255 255
62.9687 87.204 -87.2328  255 255 255
85.3941 98.8405 -105.645  255 255 255
59.22 43.2946 -24.2966  255 255 255
47.9393 80.6258 -77.9875  255 255 255
53.3217 82.5203 -80.7742  255 255 255
38.7468 76.2727 -70.6496  255 255 255
13.7255 64.0174 -51.7184  255 255 255
-13.7808 50.6023 -29.2559  255 255 255
-11.8652 52.7632 -32.8916  255 255 255
49.6701 80.4812 -78.6127  255 255 255
35.5689 74.1702 -69.727  255 255 255
25.5904 69.6219 -62.8869  255 255 255
12.6275 63.6096 -52.9186  255 255 255
54.8154 82.4542 -84.7333  255 255 255
-11.5448 50.4443 -31.2662  255 255 255
-9.96394 53.6834 -36.1105  255 255 255
-4.35776 56.4599 -41.1326  255 255 255
10.9648 63.0796 -52.4571  255 255 255
55.9478 45.0355 -30.3143  255 255 255
58.8921 41.8268 -25.7002  255 255 255
-19.5534 49.2532 -29.3399  255 255 255
-19.388 48.9444 -28.8542  255 255 255
1.64747 58.3096 -45.5156  255 255 255
34.7208 72.5036 -70.0126  255 255 255
-9.4791 51.7447 -34.9444  255 255 255
-9.10862 53.054 -37.2169  255 255 255
38.7703 74.0122 -74.0414  255 255 255
38.7123 73.8672 -73.793  255 255 255
11.8549 62.0965 -53.7474  255 255 255
-11.6088 51.5057 -35.2569  255 255 255
4.5366 58.9552 -48.3379  255 255 255
10.8621 61.5444 -53.1074  255 255 255
29.1535 68.9103 -66.4316  255 255 255
32.1411 70.4593 -68.9211  255 255 255
9.98495 60.5076 -51.9779  255 255 255
10.1235 60.8713 -52.5851  255 255 255
-9.34706 52.5248 -37.8337  255 255 255
19.8796 64.5664 -60.092  255 255 255
31.1022 69.2854 -68.1928  255 255 255
31.1021 69.2853 -68.1926  255 255 255
7.21815 58.7564 -50.3869  255 255 255
-26.476 45.5704 -25.8966  255 255 255
-26.2725 44.453 -24.2306  255 255 255
61.2023 85.804 -97.5705  255 255 255
57.1282 80.011 -88.0936  255 255 255
5.80952 58.5579 -50.2762  255 255 255
24.3987 66.4295 -64.3167  255 255 255
24.5031 66.7158 -64.8087  255 255 255
72.8121 86.8755 -101.074  255 255 255
-26.2706 44.2307 -24.4417  255 255 255
-9.11097 51.8015 -38.6159  255 255 255
59.8821 26.7308 -6.84204  255 255 255
-9.71778 51.4966 -38.2402  255 255 255
70.5695 86.3008 -100.639  255 255 255
48.5792 76.1473 -83.4133  255 255 255
32.4794 68.8515 -70.8106  255 255 255
33.8671 69.3908 -71.9206  255 255 255
33.9913 69.7073 -72.4127  255 255 255
-24.8519 44.2879 -25.9076  255 255 255
9.0199 58.7844 -53.5602  255 255 255
15.101 61.5405 -58.3146  255 255 255
52.5684 77.3865 -87.539  255 255 255
52.6691 77.7159 -87.939  255 255 255
52.5266 77.3717 -87.4613  255 255 255
58.7485 79.503 -91.1681  255 255 255
-24.0522 46.2361 -29.7384  255 255 255
15.9196 61.7101 -59.5627  255 255 255
62.5007 24.1086 -4.76169  255 255 255
34.4966 68.5824 -73.1134  255 255 255
12.523 59.5916 -56.7693  255 255 255
66.0912 81.9583 -97.9618  255 255 255
77.4727 87.1785 -107.521  255 255 255
63.9168 80.7146 -96.3622  255 255 255
75.0769 85.7614 -105.43  255 255 255
2.47136 55.2164 -49.0414  255 255 255
15.9583 60.9689 -59.9594  255 255 255
15.2136 60.7591 -59.9263  255 255 255
69.2912 81.5649 -99.2156  255 255 255
69.6168 82.4452 -100.744  255 255 255
55.8716 76.8011 -90.978  255 255 255
52.7062 74.3649 -86.9995  255 255 255
47.5217 73.2533 -85.3545  255 255 255
60.0234 25.1401 -8.65469  255 255 255
60.0234 25.1401 -8.65464  255 255 255
-23.8086 43.728 -29.0919  255 255 255
59.1978 36.7249 -28.4825  255 255 255
17.963 59.739 -64.0597  255 255 255
17.3889 58.5389 -62.8492  255 255 255
42.5489 68.9378 -83.6068  255 255 255
55.8088 39.1327 -35.1966  255 255 255
2.13717 53.1206 -52.3832  255 255 255
35.6388 65.8026 -78.6099  255 255 255
0.941229 50.4874 -47.919  255 255 255
33.8413 64.6419 -76.7919  255 255 255
43.182 71.2942 -90.5478  255 255 255
41.2031 68.6991 -86.5082  255 255 255
-25.1065 34.8816 -19.3455  255 255 255
8.92753 53.9913 -58.0121  255 255 255
7.95086 53.3469 -57.171  255 255 255
-2.54074 49.1262 -49.7672  255 255 255
58.8045 34.077 -32.1958  255 255 255
58.0616 34.7485 -34.2663  255 255 255
0.652626 50.7069 -54.1452  255 255 255
56.2117 24.5012 -16.1437  255 255 255
56.2858 35.5192 -36.2307  255 255 255
-15.2968 43.4213 -39.3941  255 255 255
60.2432 32.5442 -31.9233  255 255 255
54.8587 25.8163 -19.5521  255 255 255
34.7892 60.4796 -79.5097  255 255 255
23.6279 57.2549 -72.3649  255 255 255
36.7861 62.5027 -84.0868  255 255 255
34.2365 63.6573 -86.5504  255 255 255
-21.9281 39.5972 -33.0796  255 255 255
-22.0281 39.9888 -33.8097  255 255 255
-22.0966 40.1399 -34.0436  255 255 255
60.262 32.0006 -32.9147  255 255 255
-13.8633 43.2281 -41.8  255 255 255
-13.8334 43.2306 -41.8152  255 255 255
32.8935 60.4079 -81.1523  255 255 255
-1.88634 47.5914 -51.9992  255 255 255
-1.88633 47.5913 -51.9992  255 255 255
24.1242 55.8216 -72.1657  255 255 255
41.6879 63.1257 -87.9618  255 255 255
54.7856 67.5479 -99.2471  255 255 255
65.185 15.5575 -4.85554  255 255 255
54.1809 36.5942 -42.3434  255 255 255
2.31274 48.7798 -56.7286  255 255 255
42.0469 62.9286 -90.4208  255 255 255
41.8926 62.6643 -89.7499  255 255 255
3.91935 48.811 -57.5804  255 255 255
3.95661 48.9682 -58.0087  255 255 255
3.99813 48.795 -57.5463  255 255 255
12.8796 52.761 -66.9115  255 255 255
55.9502 34.5033 -40.0743  255 255 255
37.6063 60.7291 -86.4916  255 255 255
30.8168 58.0852 -81.3142  255 255 255
55.1561 23.4843 -20.1272  255 255 255
55.3374 23.6068 -20.376  255 255 255
40.8921 61.1013 -89.8517  255 255 255
65.3621 14.0173 -5.22545  255 255 255
24.5915 54.7209 -76.4414  255 255 255
-13.9826 41.3709 -44.2461  255 255 255
55.2335 22.4207 -20.95  255 255 255
43.7918 61.1664 -94.7186  255 255 255
24.5241 54.1318 -77.4248  255 255 255
23.0311 53.5446 -76.9008  255 255 255
16.3752 51.4456 -71.6976  255 255 255
37.5293 58.4702 -89.5372  255 255 255
56.1459 30.5116 -38.5672  255 255 255
56.6602 31.3151 -39.9034  255 255 255
57.1664 30.818 -39.2949  255 255 255
39.7779 58.6494 -91.3358  255 255 255
58.5935 29.1199 -37.6024  255 255 255
11.9883 48.645 -69.0565  255 255 255
22.517 52.4016 -78.7557  255 255 255
12.6459 48.4576 -68.6719  255 255 255
12.6632 48.5612 -68.9461  255 255 255
61.9063 15.1923 -12.4139  255 255 255
-2.25882 43.5242 -57.47  255 255 255
11.7778 48.0082 -69.6397  255 255 255
62.7652 14.2805 -11.2268  255 255 255
58.3335 27.7363 -38.6733  255 255 255
63.7936 9.80058 -3.97654  255 255 255
-12.593 37.1986 -44.9927  255 255 255
59.2696 26.8053 -38.8338  255 255 255
-10.2693 39.6478 -51.117  255 255 255
-1.14619 42.2163 -60.0947  255 255 255
-1.14619 42.2163 -60.0947  255 255 255
64.1504 11.9311 -10.725  255 255 255
-16.1728 37.1289 -46.4653  255 255 255
19.9031 9.61575 3.7521  255 255 255
19.8837 9.60542 3.73294  255 255 255
-17.9485 36.1444 -45.0134  255 255 255
-17.9321 36.0441 -44.8729  255 255 255
-19.941 35.3191 -43.0768  255 255 255
-17.1338 36.2263 -46.2103  255 255 255
11.9738 45.354 -72.8476  255 255 255
63.6006 11.6697 -11.7417  255 255 255
28.9267 6.56126 6.1564  255 255 255
-20.123 34.5456 -43.4235  255 255 255
-9.62994 37.7777 -53.8704  255 255 255
63.1317 11.6438 -13.3026  255 255 255
63.0555 11.6518 -13.1774  255 255 255
9.48277 43.308 -71.3248  255 255 255
17.9151 8.97585 2.71176  255 255 255
64.5143 10.2888 -11.5175  255 255 255
-12.4577 36.6567 -51.5395  255 255 255
13.9191 44.2936 -76.8615  255 255 255
19.7048 6.65697 5.85026  255 255 255
22.8233 42.7009 -78.2322  255 255 255
64.6966 8.7674 -11.312  255 255 255
31.8687 39.5069 -74.048  255 255 255
17.5812 7.43373 3.77632  255 255 255
63.2836 9.53529 -14.399  255 255 255
15.5005 8.02907 1.61548  255 255 255
66.2619 6.67591 -10.9261  255 255 255
-0.472584 37.7062 -66.9804  255 255 255
15.0177 7.24617 1.39786  255 255 255
2.65218 37.7591 -68.9651  255 255 255
32.7721 3.58178 5.11627  255 255 255
58.0641 12.4094 -23.6049  255 255 255
33.6322 3.27594 4.45647  255 255 255
-7.10644 33.5986 -62.6548  255 255 255
21.4617 2.47091 8.21926  255 255 255
21.4617 2.47091 8.21926  255 255 255
13.6244 9.56969 -7.80833  255 255 255
13.7892 6.40821 -0.103556  255 255 255
-3.29073 32.5477 -65.7329  255 255 255
61.3688 6.78491 -21.5969  255 255 255
24.3536 -0.130554 8.59721  255 255 255
69.2019 0.202793 -9.66831  255 255 255
68.9058 0.100594 -11.0996  255 255 255
64.7607 0.147723 -11.5369  255 255 255
17.5796 0.140343 6.10877  255 255 255
33.2203 -1.64647 3.97645  255 255 255
41.2991 -2.37689 2.6221  255 255 255
32.5331 -2.41841 5.81869  255 255 255
66.0073 0.357218 -17.2326  255 255 255
20.2879 -1.07108 6.5985  255 255 255
8.70818 3.48047 -3.56623  255 255 255
63.1501 1.80706 -22.9733  255 255 255
63.9533 -0.0699633 -22.6082  255 255 255
68.0232 -3.32431 -17.1118  255 255 255
8.45052 -0.359879 1.45938  255 255 255
64.6757 -2.04074 -23.0698  255 255 255
33.3712 -6.36852 7.98566  255 255 255
11.3488 -1.83905 3.15789  255 255 255
69.5258 -4.44013 -20.0961  255 255 255
69.5251 -4.44026 -20.0953  255 255 255
23.7886 -5.60452 9.08937  255 255 255
23.3566 -5.50523 8.73733  255 255 255
23.3567 -5.50581 8.75657  255 255 255
67.5964 -4.27297 -21.2191  255 255 255
9.81853 -2.01636 3.28964  255 255 255
68.8278 -6.08861 -17.5203  255 255 255
10.9595 -3.20808 4.77279  255 255 255
34.8191 -7.86591 5.82874  255 255 255
